-0.181129,-0.1,-2.19403,-0.0635719,0.997787,0.0194835
-2.05079,0.1,-0.205856,-0.426742,-0.872787,0.236925
-0.413705,-0.1,-1.81034,-0.166433,0.930372,0.326662
-0.0354892,-0.1,-1.22485,0.0390249,0.908583,0.415878
6.3422,0.1,-15.0076,0.430341,-0.364262,-0.825906
0.17593,-0.1,1.61992,0.104436,0.401499,0.909886
-0.52794,-0.1,-3.42386,-0.233533,0.824384,-0.51561
0.493873,-0.1,0.437215,0.0866205,0.615685,0.783217
-2.78723,-0.1,-2.6167,-0.842999,0.524183,-0.120766
1.67771,-0.1,-1.78275,0.579251,0.799982,0.156512
0.448506,-0.1,-0.156644,0.182994,0.821052,0.540729
-1.25497,-0.1,-0.879854,-0.479284,0.72242,0.498394
-0.430663,-0.1,-1.47171,-0.282837,0.902511,0.324772
-1.44137,-0.1,-1.62078,-0.582745,0.746449,0.32128
-0.204242,-0.1,-1.57605,-0.0859313,0.955026,0.283797
-1.78537,-0.1,-0.154144,-0.431852,0.554869,0.711073
0.804103,-0.1,-1.42974,0.383617,0.873949,0.298414
-0.115643,-0.1,-2.40965,-0.178051,0.982548,-0.0538242
-4.05426,-0.1,3.3225,-0.544091,0.226466,0.807885
0.947401,-0.1,9.57062,0.073714,0.134892,0.988115
0.275182,-0.1,-2.06347,0.193801,0.977172,0.0870409
-0.279139,-0.1,-0.994028,-0.0233882,0.782712,0.621945
0.22074,-0.1,-1.96216,0.105231,0.9856,0.132362
-0.419973,-0.1,-1.92056,-0.211135,0.958115,0.193487
-2.63714,-0.1,-2.91502,-0.77538,0.597711,-0.203782
1.72678,-0.1,-2.57535,0.65397,0.697285,-0.293457
0.161876,-0.1,-0.716809,0.0204017,0.794312,0.607167
-0.295674,-0.1,-1.81291,-0.0718297,0.944945,0.319248
-1.77754,-0.1,-1.93826,-0.67757,0.700367,0.224465
1.38667,-0.1,-1.34627,0.570117,0.75632,0.320851
2.12277,0.1,0.226229,0.136638,-0.71209,0.688664
6.2258,-0.1,1.42784,0.867167,0.24127,0.435672
-0.803784,-0.1,-1.39451,-0.367119,0.903539,0.221002
-4.85179,-0.1,1.39023,-0.857735,0.23834,0.455505
-3.70115,0.1,2.42534,0.323103,-0.868556,-0.375786
0.170905,-0.1,-2.50485,0.0540156,0.994155,-0.093478
0.833903,-0.1,-1.64551,0.410709,0.848505,0.333704
4.55787,-0.1,-0.409324,0.86635,0.339548,0.366258
1.6189,-0.1,-1.91861,0.619579,0.74987,0.231982
-0.99849,-0.1,-1.59024,-0.417644,0.842764,0.33959
-3.433,-0.1,2.13822,-0.698311,0.313794,0.643347
-2.36933,-0.1,-2.04311,-0.761799,0.640498,0.0970786
3.07932,-0.1,-0.562508,0.785106,0.435697,0.4402
0.121171,-0.1,-0.585701,0.126848,0.788918,0.601264
-0.0627845,-0.1,-1.93339,0.0140959,0.943453,0.331205
0.226772,-0.1,-1.65163,0.0600286,0.969049,0.239457
-0.153001,-0.1,-0.410666,-0.128732,0.676999,0.724638
0.8625,-0.1,-2.11381,0.452764,0.874777,0.172538
1.56974,-0.1,-2.50152,0.713652,0.70029,0.017153
0.460246,-0.1,-1.9883,0.265031,0.938805,0.220008
-2.57883,-0.1,-2.61095,-0.827237,0.553334,-0.0974714
4.55132,-0.1,-3.7886,0.86908,0.372474,-0.325518
-0.999083,-0.1,0.215187,-0.27006,0.587602,0.762752
-0.391378,-0.1,-1.09383,-0.30273,0.853076,0.42499
-0.180598,-0.1,-0.787319,-0.144623,0.829582,0.539331
-0.134686,-0.1,-2.57895,0.0444146,0.994262,-0.097315
-0.150162,-0.1,-2.33874,-0.0142868,0.999898,-0.000545213
-1.63217,-0.1,-1.6842,-0.63459,0.749253,0.189514
1.02332,-0.1,1.56161,-0.00338298,0.494725,0.869043
10.8255,0.1,7.13211,-0.0207599,-0.807851,0.589021
13.0607,0.1,13.3867,-0.050665,-0.505276,0.861469
-1.05826,-0.1,-2.56991,-0.444324,0.884348,-0.143197
-0.116497,-0.1,-1.20999,-0.0493184,0.891976,0.449384
-0.252177,-0.1,-0.76689,-0.130094,0.79922,0.58679
-0.592464,-0.1,-2.34088,-0.27761,0.9605,0.0192928
0.61869,-0.1,-1.51052,0.145841,0.91501,0.376149
-1.40479,-0.1,-1.29024,-0.549007,0.776786,0.308536
0.703263,-0.1,-1.36628,0.251002,0.833773,0.491752
-0.967211,-0.1,-1.1365,-0.251983,0.820603,0.512947
4.15321,-0.1,0.531836,0.810007,0.32416,0.488682
-1.75297,-0.1,-1.54213,-0.593848,0.715201,0.368554
1.05169,-0.1,-1.38407,0.391212,0.851454,0.349255
-0.7954,-0.1,-2.25605,-0.36578,0.927551,0.0765116
-1.28576,0.1,-8.69221,-0.113494,-0.37401,-0.920454
3.35172,0.1,-7.40985,0.423323,-0.865016,0.269342
1.73376,-0.1,-1.61431,0.512746,0.797647,0.317571
-0.420257,-0.1,-2.76403,-0.186919,0.965875,-0.179296
-1.85852,-0.1,1.11379,-0.42283,0.418648,0.803709
-1.11237,-0.1,-1.87117,-0.443331,0.866781,0.22836
-0.360113,-0.1,-1.88523,-0.17771,0.98147,0.0716687
-3.06679,-0.1,-6.79481,-0.540438,0.306795,-0.783456
-0.400687,-0.1,-0.0815301,-0.105581,0.625335,0.773181
0.863374,-0.1,-2.0753,0.385538,0.909797,0.153719
-1.59267,0.1,5.45605,-0.299106,-0.562991,0.770439
-0.284563,-0.1,-0.366106,-0.0909986,0.666628,0.739815
-0.0825473,-0.1,-1.00198,-0.0698152,0.827857,0.556577
-1.06517,0.1,-2.15096,0.124108,-0.99199,0.0235025
0.177414,-0.1,-1.23512,0.0599956,0.868678,0.491731
-0.804665,-0.1,-0.0243231,-0.409994,0.671128,0.617651
-0.811305,-0.1,-0.338708,-0.289341,0.68941,0.664076
-0.2587,-0.1,-0.0311084,-0.079086,0.636641,0.767094
2.03843,0.1,2.47338,-0.481113,-0.712593,0.510628
0.745123,0.1,5.15637,-0.05292,-0.800294,0.597268
3.43882,-0.1,-1.10931,0.86757,0.423069,0.261409
-2.2198,-0.1,-4.02816,-0.595469,0.569946,-0.566196
0.307003,-0.1,-1.60357,0.176325,0.882468,0.436072
-0.298865,-0.1,-1.488,-0.207111,0.889016,0.408357
2.23163,-0.1,-1.28227,0.676842,0.636721,0.36942
1.65138,-0.1,-1.4073,0.725101,0.609826,0.319908
0.188162,-0.1,-1.23422,0.129922,0.850058,0.510414
-0.909962,-0.1,-0.523259,-0.205905,0.674272,0.709197
-2.75063,-0.1,-4.60572,-0.614265,0.437312,-0.656839
-1.16703,-0.1,-1.29031,-0.406926,0.741295,0.533753
-1.22978,-0.1,-0.871951,-0.456111,0.704641,0.543548
-0.137062,-0.1,-2.30057,0.093272,0.984661,-0.147455
0.502717,-0.1,-1.91624,0.143637,0.985319,0.0922725
-2.84765,0.1,-1.32647,-0.701296,-0.680931,0.21099
0.502419,-0.1,-1.95479,0.211905,0.964417,0.158105
-7.67819,0.1,3.28395,-0.865318,-0.402494,0.298702
-0.553384,-0.1,-2.92195,-0.165054,0.9343,-0.315975
0.455903,-0.1,-0.466415,0.113835,0.705367,0.699642
8.96134,-0.1,0.326453,0.961896,0.272555,0.0216812
1.40717,-0.1,0.780629,0.33775,0.449443,0.826998
0.15338,-0.1,0.115034,0.00650824,0.586695,0.809782
-4.28094,0.1,4.77144,-0.607156,-0.525563,0.595941
-4.37486,0.1,4.76617,-0.929767,-0.0115652,-0.367966
-1.17144,-0.1,-2.55669,-0.502467,0.864362,-0.0201544
0.333439,-0.1,-1.0682,0.152937,0.821408,0.549454
0.696006,-0.1,-0.778782,0.256618,0.748372,0.611626
-5.37847,0.1,-7.8454,-0.560933,-0.431278,-0.70665
-0.679755,-0.1,-2.25498,-0.216532,0.970334,-0.107543
0.627061,-0.1,-2.23976,0.328032,0.944667,0.000454833
-0.223781,-0.1,-2.13401,-0.102818,0.993319,0.0523963
-1.02872,-0.1,-0.664711,-0.303988,0.69024,0.656628
-7.25447,0.1,0.538295,-0.74592,-0.593516,0.302227
-0.981745,-0.1,-2.97435,-0.398327,0.846118,-0.354146
-10.6994,0.1,0.915509,-0.703858,-0.348337,0.619068
-29.5493,0.1,6.62033,-0.873697,-0.220667,0.433544
0.673147,-0.1,-0.720155,0.323521,0.821512,0.469523
2.32617,-0.1,-1.30054,0.660883,0.572197,0.485618
0.865839,-0.1,-2.68528,0.332025,0.937497,-0.104205
0.188581,-0.1,-1.74764,0.1014,0.948528,0.300022
0.409029,-0.1,-2.51484,0.286289,0.9574,-0.0377254
0.988772,-0.1,-1.25537,0.366342,0.830981,0.418645
-2.00305,-0.1,-0.618219,-0.62634,0.589178,0.510458
0.761568,-0.1,2.72867,0.0984302,0.315737,0.943727
0.334773,-0.1,-1.38017,0.154307,0.950499,0.269705
-0.869789,-0.1,0.310981,-0.299923,0.579264,0.757958
2.48189,-0.1,-2.30145,0.822796,0.568304,0.006032
-4.97415,-0.1,-1.62406,-0.939511,0.32031,0.121328
0.508607,-0.1,-1.85503,0.238912,0.943305,0.230427
-1.09579,-0.1,-2.39553,-0.342212,0.936309,-0.0788477
1.06114,-0.1,-1.81469,0.453051,0.881576,0.132546
-0.862564,-0.1,-0.645394,-0.290538,0.732269,0.615929
0.743029,-0.1,-1.32316,0.266298,0.838396,0.475581
0.261964,-0.1,-2.11566,0.0206681,0.993012,0.116187
17.1839,0.1,2.88075,0.98376,-0.140999,0.111068
-0.0260388,-0.1,-4.02829,0.000460159,0.781671,-0.623691
0.427624,-0.1,-1.45467,0.23171,0.865084,0.444904
1.34242,-0.1,-2.07094,0.518107,0.840904,0.156351
-3.54032,-0.1,-1.05329,-0.887401,0.407304,-0.215924
-7.36105,-0.1,7.0295,-0.57703,0.136967,0.805156
2.3423,-0.1,-1.69228,0.602441,0.79734,0.0362556
-3.66695,-0.1,5.40323,-0.474664,0.193808,0.858564
-10.1652,-0.1,19.1626,-0.451133,0.190878,0.871805
0.354951,-0.1,-1.2444,0.131026,0.85281,0.505517
-0.0694708,-0.1,-0.986254,0.0129875,0.789589,0.613498
-1.37296,0.1,1.99577,-0.260828,-0.760933,0.594095
-4.27921,0.1,2.81138,-0.2255,-0.974204,-0.00876372
-0.515693,-0.1,0.129109,-0.0293099,0.638123,0.769376
-1.01585,-0.1,-2.70468,-0.320544,0.906827,-0.273709
-0.897705,-0.1,-0.529076,-0.240475,0.781541,0.575643
0.531002,-0.1,-1.92084,0.0852084,0.94981,0.300999
0.591758,-0.1,-2.5867,0.294702,0.955111,-0.0302288
-0.300567,-0.1,-3.00961,-0.173286,0.954252,-0.243671
-0.959115,-0.1,-1.33062,-0.297648,0.82959,0.472427
-2.339,-0.1,0.181055,-0.653616,0.540428,0.529834
1.00028,0.1,-2.47747,0.23779,-0.867378,-0.437163
-8.78491,0.1,-1.56978,-0.508793,-0.829632,0.22987
-1.04756,0.1,12.4725,0.343255,-0.236398,0.909006
0.587173,-0.1,-1.79562,0.356971,0.920623,0.158194
0.34162,-0.1,0.677078,0.12073,0.51105,0.85103
-0.16582,-0.1,-0.968605,-0.0920723,0.810751,0.578105
-0.00327155,-0.1,-1.10421,-0.109641,0.847016,0.520137
-0.995693,-0.1,-0.701785,-0.372386,0.818292,0.437866
2.02211,-0.1,-1.87616,0.75719,0.642238,0.119142
-0.692395,-0.1,0.301155,-0.520347,0.512528,0.683048
0.754641,-0.1,-1.76274,0.337943,0.93619,0.0966621
0.0361309,-0.1,-1.3422,-0.0692227,0.909261,0.410431
0.980219,-0.1,-2.48251,0.545682,0.837986,0.00329686
1.15292,-0.1,-0.99656,0.43377,0.735579,0.520354
1.68387,-0.1,-1.23297,0.592559,0.718836,0.363524
-0.306061,-0.1,-1.07694,-0.0576739,0.841818,0.536672
-0.0246549,-0.1,-1.82154,-0.0113156,0.98094,0.193982
-0.295118,-0.1,-2.84587,-0.106403,0.984793,-0.137339
0.60935,-0.1,-2.96118,0.343511,0.862487,-0.37164
4.06969,0.1,-17.5848,0.14346,-0.226132,-0.963475
1.00128,-0.1,0.489955,0.288045,0.528059,0.798864
-16.0651,0.1,-4.73815,-0.956166,-0.170621,-0.237982
0.666871,-0.1,-2.60044,0.30983,0.935607,-0.169249
-1.35065,-0.1,0.507748,-0.300901,0.505564,0.808618
0.47755,-0.1,-1.33181,0.289927,0.834151,0.469185
-0.226147,-0.1,-1.94511,-0.0257758,0.958252,0.284759
-0.838223,-0.1,-2.06862,-0.446226,0.883932,0.139811
-0.351582,-0.1,-1.73552,-0.125862,0.936825,0.326371
1.26819,-0.1,-1.09775,0.509948,0.761004,0.401031
0.858858,-0.1,-1.26979,0.296306,0.801819,0.518931
1.2681,-0.1,-1.96487,0.498248,0.84701,0.185265
-0.824433,-0.1,-2.6291,-0.357358,0.917497,-0.174626
-2.69854,-0.1,0.856579,-0.617009,0.416701,0.667578
-0.183613,-0.1,-1.07525,-0.187294,0.849266,0.493628
-1.9172,-0.1,-1.91774,-0.655174,0.75396,0.0478686
-0.917841,-0.1,0.334775,-0.347413,0.594843,0.724891
-0.854343,-0.1,-1.83234,-0.382489,0.88057,0.279818
-0.160404,-0.1,-1.86733,-0.0199305,0.974544,0.223308
0.0810886,-0.1,-0.371068,0.119226,0.808276,0.576607
0.129649,-0.1,-1.16578,-0.0371915,0.898136,0.438142
0.0702985,-0.1,-2.18633,0.0826809,0.992789,0.0867975
-1.67126,-0.1,1.22586,-0.362079,0.458901,0.811362
-0.395143,-0.1,-1.68656,-0.211091,0.89368,0.39595
-0.854696,-0.1,-1.15803,-0.341539,0.801347,0.491115
-9.39095,-0.1,4.23236,-0.678976,0.384919,0.625163
-2.09662,-0.1,-1.79609,-0.658695,0.732099,0.173643
-1.67099,0.1,-9.06607,0.181304,-0.392165,-0.901851
-3.38597,-0.1,-4.24504,-0.813494,0.403465,-0.41886
-0.255131,-0.1,0.655912,-0.0958703,0.553457,0.827342
-0.545153,-0.1,-0.292451,-0.144644,0.716487,0.68244
-1.24618,-0.1,-0.859106,-0.476579,0.653798,0.587725
0.796502,-0.1,-2.99811,0.349863,0.892787,-0.283775
0.0568901,-0.1,-0.189704,0.0940602,0.730201,0.676727
2.968,-0.1,2.13239,0.56382,0.308326,0.766187
0.242949,-0.1,-0.416116,0.0448346,0.697933,0.714759
-1.17559,-0.1,-2.03044,-0.524292,0.845657,0.0999043
-1.21682,-0.1,3.3973,-0.187246,0.288046,0.939132
-0.054732,-0.1,0.728663,-0.073219,0.514642,0.854273
0.687402,-0.1,-1.1273,0.312933,0.824816,0.470904
-0.845495,-0.1,-1.61391,-0.392501,0.846143,0.360535
0.387997,-0.1,-1.63897,0.227929,0.920587,0.317124
-13.0874,0.1,-29.3454,-0.44721,-0.112985,-0.887264
0.611402,-0.1,-1.26125,0.345611,0.835031,0.428108
1.94034,-0.1,-0.3471,0.6029,0.550882,0.577096
-0.0597714,-0.1,-1.68277,-0.0342823,0.965186,0.259308
-1.48116,-0.1,-1.61999,-0.517628,0.803286,0.294606
0.409483,-0.1,-0.494283,-0.0605103,0.868696,0.491635
-0.245062,-0.1,-1.96124,-0.117927,0.985995,0.117932
1.44354,-0.1,2.01271,0.357282,0.389913,0.848715
0.108407,-0.1,-0.901663,-0.0697686,0.85191,0.51902
-0.721753,-0.1,-1.5703,-0.32506,0.855028,0.404059
-0.970814,-0.1,-0.218104,-0.224269,0.618166,0.753375
18.0597,0.1,16.3394,0.893813,-0.144756,0.424434
18.0792,0.1,16.3411,0.974223,-0.132101,-0.182861
-2.56327,-0.1,-1.65657,-0.735201,0.611118,0.293282
-4.24009,-0.1,-1.72879,-0.920882,0.388632,0.0306931
0.0157346,-0.1,-3.10939,0.0337586,0.875635,-0.481793
-0.324847,-0.1,-0.977071,-0.20117,0.847568,0.491079
-0.157915,-0.1,-0.180423,-0.0409799,0.631984,0.773897
0.724435,-0.1,-3.55537,0.296948,0.794674,-0.529448
0.110706,-0.1,-2.5184,0.0124748,0.993995,-0.108717
-0.922252,-0.1,-2.16722,-0.417284,0.90341,-0.0986116
-0.386707,-0.1,-1.54183,-0.131721,0.914412,0.382752
0.632031,-0.1,-2.09586,0.297659,0.939803,0.167835
-0.890378,-0.1,0.000308969,-0.24973,0.668698,0.700342
-0.0257268,-0.1,-1.24846,-0.0383571,0.88082,0.471895
-4.0017,0.1,-1.20426,-0.387593,-0.920471,-0.05004
0.920576,-0.1,-3.07891,0.436758,0.763756,-0.47531
0.753442,-0.1,-1.33981,0.446883,0.855668,0.261014
-0.874535,-0.1,-0.15548,-0.25782,0.641396,0.722592
0.049759,-0.1,-1.78393,0.19432,0.953635,0.229825
3.53604,0.1,-3.74057,0.585092,-0.687994,-0.42934
0.261396,-0.1,1.17929,0.0602138,0.463091,0.884263
-0.24925,-0.1,-0.424609,0.0059232,0.733833,0.679304
1.54136,-0.1,-1.2292,0.557204,0.736425,0.38367
-1.33872,-0.1,-2.47899,-0.51915,0.832007,-0.195568
0.757328,-0.1,-1.40415,0.329977,0.867559,0.372098
-0.50678,-0.1,-0.438467,-0.201365,0.686655,0.69854
0.936129,-0.1,-0.757018,0.453042,0.690724,0.563608
10.7418,0.1,11.2105,-0.0930039,-0.963445,0.251244
-0.375843,-0.1,0.148943,-0.152433,0.632991,0.759004
-0.712061,-0.1,-1.51111,-0.21147,0.928921,0.303952
0.571294,-0.1,-1.54856,0.323815,0.892581,0.313755
-0.499318,-0.1,-6.71024,-0.21431,0.586143,-0.78135
-0.548951,-0.1,-1.18508,-0.316169,0.855004,0.411102
0.812028,-0.1,-0.788203,0.38835,0.749115,0.536666
-0.189677,-0.1,-2.52294,-0.104305,0.986142,-0.129013
0.460926,-0.1,-0.0451044,0.111331,0.640492,0.759852
5.64054,0.1,-22.4135,0.41302,-0.339952,-0.844895
1.25032,-0.1,-0.582517,0.29261,0.712721,0.637501
1.19376,-0.1,4.07203,0.226268,0.259106,0.938971
-1.15816,-0.1,-2.1064,-0.501198,0.856622,0.122475
-0.635471,-0.1,-1.26708,-0.273896,0.879258,0.389727
-0.370864,-0.1,-1.3919,-0.129555,0.878116,0.460573
-0.196584,-0.1,-2.80775,0.0285269,0.987267,-0.156494
-3.04751,-0.1,-0.836354,-0.69556,0.600995,0.393702
0.421531,-0.1,-1.67155,0.256704,0.966479,0.00460489
0.451963,-0.1,-1.87994,0.127613,0.931557,0.340465
0.757804,-0.1,-1.9373,0.298123,0.9288,0.220123
-0.233246,-0.1,-1.39088,-0.0763761,0.899692,0.429792
-0.884844,-0.1,-2.14455,-0.416954,0.897464,0.143904
3.11833,-0.1,0.0182237,0.721421,0.479209,0.499911
1.74664,-0.1,-1.02965,0.55034,0.694305,0.463752
0.71842,-0.1,0.326524,0.114799,0.637394,0.761939
-0.429766,-0.1,-1.45508,-0.24805,0.86804,0.430091
2.70506,0.1,-3.89618,0.873706,-0.419746,-0.245867
-0.201739,-0.1,-0.593662,0.0181281,0.716635,0.697213
7.64762,0.1,15.0465,0.315489,-0.288374,0.90405
-0.224337,-0.1,-1.05571,-0.18269,0.897705,0.400936
19.7871,0.1,-4.21436,0.974128,-0.147439,-0.171275
0.203367,-0.1,-1.02151,0.130587,0.820013,0.557249
-0.207404,0.1,-6.32409,0.141466,-0.475885,-0.868056
-2.08911,-0.1,1.68976,-0.448005,0.361254,0.817794
-1.17709,-0.1,-2.98391,-0.371222,0.796994,-0.476439
-0.193691,-0.1,-1.28241,-0.107886,0.844148,0.525143
-1.40274,-0.1,-0.752977,-0.546005,0.708646,0.446877
0.00259629,-0.1,-0.947405,0.0132106,0.840306,0.541951
0.859779,-0.1,0.294037,0.298506,0.551077,0.779236
2.35118,-0.1,1.35707,0.621482,0.404196,0.671108
1.21962,-0.1,-0.701397,0.423281,0.773559,0.471635
-0.427742,0.1,-3.92541,0.0853127,-0.850248,-0.519424
-4.44826,-0.1,5.8686,-0.510625,0.204256,0.835189
-10.6521,-0.1,8.19616,-0.189487,0.735029,-0.65102
1.24973,-0.1,-1.69283,0.446974,0.842363,0.301061
0.139324,-0.1,-1.85169,-0.0040271,0.972865,0.231338
1.73092,0.1,1.01444,0.0823419,-0.818857,0.568061
1.42088,-0.1,-1.05551,0.517999,0.778501,0.354419
1.77886,-0.1,-0.619721,0.60825,0.593418,0.52715
-0.493337,-0.1,-1.33041,-0.171326,0.9313,0.321447
-0.535812,-0.1,-1.44048,-0.159682,0.87565,0.455783
0.674027,-0.1,-0.744135,0.316778,0.726809,0.609426
0.807763,-0.1,-0.566312,0.982199,0.0939154,0.162681
1.39419,-0.1,-0.646867,0.360485,0.624225,0.693104
4.50392,-0.1,3.62431,0.906549,0.415974,0.0716583
-0.534683,-0.1,-0.786932,-0.262608,0.758854,0.595968
0.373606,-0.1,-2.07998,0.356032,0.927868,0.110912
-0.635417,-0.1,-2.16356,-0.30785,0.941583,0.136567
-1.72034,-0.1,0.363756,-0.591857,0.55996,0.579785
-1.15469,-0.1,-0.718243,-0.377686,0.679404,0.629097
-0.338175,-0.1,-2.26497,-0.184684,0.973669,0.133643
-1.98007,-0.1,-1.36774,-0.574543,0.755683,0.314393
1.42813,-0.1,-2.31662,0.598987,0.788791,0.137924
-0.389945,-0.1,0.127367,-0.216941,0.643626,0.733949
-0.46311,-0.1,-1.48329,-0.254116,0.874604,0.412908
0.806471,-0.1,-1.44586,0.386999,0.831876,0.397761
0.530295,-0.1,-2.21548,0.2006,0.978258,0.0526339
-0.614893,-0.1,-1.04588,-0.0986233,0.863013,0.495461
-0.381065,-0.1,-1.03427,-0.169736,0.842797,0.510766
-1.34589,-0.1,2.19768,-0.352888,0.343285,0.870417
-1.93675,-0.1,-1.33356,-0.653954,0.645821,0.394029
1.56726,-0.1,0.601847,0.365,0.521189,0.771451
-0.0236392,-0.1,-1.83689,0.105665,0.956987,0.270205
0.611964,-0.1,-2.24698,0.31047,0.948517,-0.0626438
0.4989,-0.1,0.161512,0.168268,0.586341,0.792395
0.253599,-0.1,-1.11844,0.0644982,0.829029,0.555473
-0.185469,-0.1,-0.561195,-0.0976293,0.744487,0.66046
1.67825,-0.1,-0.767977,0.50391,0.62533,0.59585
1.76772,-0.1,-3.38626,0.636963,0.711006,-0.297906
0.900523,-0.1,-0.289642,0.181594,0.64998,0.737936
-0.586039,-0.1,-1.39426,-0.119445,0.895768,0.428174
0.737481,-0.1,-2.98444,0.329178,0.887408,-0.32272
-0.379276,-0.1,-1.61612,-0.250987,0.902694,0.349498
-0.719905,-0.1,-0.704713,-0.266529,0.815932,0.513047
-0.188469,-0.1,0.510898,-0.0751206,0.525279,0.847608
0.726059,-0.1,-2.19887,0.402406,0.908636,0.111574
-0.44999,-0.1,-1.50159,-0.22858,0.897573,0.376981
0.484026,-0.1,1.11887,0.0755423,0.519156,0.851334
0.369809,-0.1,-1.75605,0.251261,0.919049,0.303671
-0.107487,-0.1,-0.908992,-0.105499,0.797983,0.593375
-0.375574,-0.1,-1.41576,-0.164809,0.890872,0.423303
1.04811,-0.1,1.46674,0.276069,0.454448,0.846914
-3.23517,-0.1,-1.39701,-0.885626,0.391989,0.249019
-0.451117,-0.1,-2.61297,-0.179862,0.978225,-0.103566
-4.98876,0.1,-1.95743,-0.826541,-0.530831,0.187211
-0.125559,-0.1,-1.49985,-0.0678076,0.901714,0.426983
-1.43023,-0.1,-1.02888,-0.563655,0.70091,0.437057
-0.26129,-0.1,-2.56853,-0.0667327,0.98953,-0.127969
-1.36233,-0.1,-1.44312,-0.115601,0.987301,0.10896
0.0337287,-0.1,-2.22312,0.182579,0.981697,0.0541854
-0.0488554,-0.1,-2.02396,-0.0706652,0.975025,0.210553
-4.32846,0.1,-0.560507,-0.410261,-0.761205,-0.502248
-2.09826,-0.1,0.0584458,-0.543111,0.535869,0.646432
0.195227,-0.1,-0.0688975,0.0904857,0.650215,0.754343
-0.648872,-0.1,-1.76458,-0.26037,0.944689,-0.199423
-0.961538,-0.1,-1.35036,-0.405453,0.857167,0.317603
-0.325885,-0.1,4.88056,-0.0710967,0.238311,0.968583
-0.92911,-0.1,-1.92257,-0.328367,0.938338,0.108149
1.25946,-0.1,-2.58987,0.568997,0.819474,-0.0685901
-1.29123,-0.1,-2.99941,-0.534844,0.808732,-0.244734
0.754942,-0.1,-0.275439,0.231813,0.646626,0.72673
-0.478596,-0.1,-1.26076,-0.232108,0.842945,0.485355
-0.337418,-0.1,-1.32228,-0.276304,0.83711,0.472126
0.0602613,-0.1,-1.42016,-0.00703112,0.908303,0.418253
-0.22555,-0.1,-1.00742,-0.0138375,0.849046,0.528137
-0.504795,-0.1,-0.409735,-0.100178,0.690958,0.71592
6.20673,-0.1,4.99726,0.672318,0.196252,0.713774
-0.16455,-0.1,-1.45406,-0.0437786,0.914248,0.402783
-0.839196,-0.1,-2.43872,-0.407921,0.913005,0.00474467
2.22818,-0.1,-1.85601,0.687401,0.682234,0.249071
-0.634225,-0.1,-0.0522981,-0.220813,0.751213,0.622029
0.867493,-0.1,-0.340905,0.351094,0.617202,0.704127
-0.358919,-0.1,-1.76448,-0.116912,0.951044,0.286091
1.57136,-0.1,-3.21843,0.514301,0.762827,-0.391905
6.55368,-0.1,-4.38708,0.801093,0.595825,-0.0569503
0.223508,-0.1,-1.03127,0.15213,0.777955,0.609625
1.24676,0.1,-2.99333,-0.30986,-0.756572,-0.575835
-15.4539,-0.1,-21.3398,-0.645451,0.106708,-0.756311
-25.2309,-0.1,-25.4458,-0.875274,0.193067,-0.443419
-0.208146,-0.1,-0.939529,-0.107316,0.820957,0.560815
0.849292,-0.1,-0.585665,0.311479,0.699639,0.643029
-4.40631,-0.1,-0.710129,-0.902316,0.342129,0.262247
-26.2078,-0.1,39.7447,-0.535369,0.0308625,0.844054
1.94776,-0.1,-0.0791046,0.57226,0.600817,0.558155
1.78624,-0.1,-1.88962,0.647871,0.728678,0.222019
1.59064,-0.1,-0.451949,0.519916,0.652019,0.551868
1.44749,-0.1,-1.67561,0.504596,0.840732,0.196347
-0.0939581,-0.1,-1.27667,-0.0398055,0.952962,0.300464
1.3303,-0.1,-2.83107,0.500395,0.837077,-0.221149
5.38339,-0.1,-2.50622,0.202294,0.657018,0.726226
0.0236571,-0.1,-2.16556,0.00158124,0.979379,0.202024
-2.58974,-0.1,-2.1755,-0.803131,0.595763,-0.0067837
-1.29767,-0.1,-1.40624,-0.514848,0.768351,0.380222
0.0388542,-0.1,-2.77423,0.0924855,0.985311,-0.143557
-1.12573,-0.1,-1.07482,-0.490878,0.719779,0.490873
0.717076,-0.1,-1.51441,0.333593,0.860148,0.385824
1.43277,-0.1,0.0175828,0.48991,0.698873,0.521119
-1.33846,-0.1,-0.304956,-0.309133,0.60075,0.737249
-0.372644,-0.1,-0.464449,-0.196841,0.747655,0.634244
-0.351509,-0.1,-2.33253,-0.117519,0.992793,-0.0234629
-0.562984,-0.1,-0.11788,-0.128318,0.754437,0.643708
0.35105,-0.1,-1.63637,0.148852,0.921737,0.35811
-1.1913,0.1,2.68022,0.176681,-0.709225,0.682483
0.137904,-0.1,0.104826,0.420905,0.881146,0.215457
-0.791069,-0.1,-1.13064,-0.379189,0.841788,0.384198
0.460537,-0.1,-1.79736,0.203514,0.951905,0.229038
0.242707,-0.1,-1.82011,0.0951211,0.949279,0.299701
0.42125,-0.1,-0.0172509,0.198963,0.626405,0.753678
1.89828,-0.1,-1.38892,0.664124,0.681472,0.307465
2.00534,0.1,-2.50122,-0.175981,-0.905483,0.386175
0.036896,-0.1,-1.44964,0.0431261,0.849763,0.525398
0.0180872,-0.1,-1.46592,-0.0325356,0.920429,0.389554
0.492172,-0.1,-0.929824,0.191797,0.844251,0.500455
-0.461946,-0.1,-1.97878,-0.295138,0.940564,0.168026
-0.0559511,-0.1,-1.74238,-0.0796955,0.912613,0.40098
-0.513514,-0.1,-3.49695,-0.384916,0.877302,-0.286671
-1.08124,-0.1,-1.32239,-0.419871,0.812004,0.405411
3.26712,-0.1,-2.15079,0.872954,0.479416,0.0900637
2.14045,-0.1,0.698133,0.555192,0.44732,0.70119
-0.761027,-0.1,-1.56536,-0.299636,0.834783,0.461904
1.57167,-0.1,-0.802203,0.561449,0.651826,0.509801
5.32143,0.1,3.76082,0.802632,-0.570888,-0.172825
0.09213,-0.1,-1.33018,-0.0374853,0.862051,0.505433
-0.0329151,-0.1,-2.08646,-0.0210643,0.989063,0.145981
0.380412,-0.1,-2.22845,0.215267,0.970869,0.105236
0.354303,-0.1,-1.47914,0.139245,0.896383,0.420842
-0.747472,-0.1,-2.10792,-0.359624,0.927906,0.0982867
0.728928,-0.1,-4.74597,0.227722,0.690899,-0.68615
0.2386,-0.1,-2.54067,-0.0468588,0.998195,-0.0375563
2.26311,-0.1,0.13662,0.562324,0.522029,0.64131
0.752414,-0.1,-2.18614,0.193071,0.980939,-0.0219853
0.0577641,-0.1,-1.83212,-0.0540421,0.988864,0.13866
0.975134,-0.1,-2.45931,0.32202,0.943333,-0.0801648
0.64565,-0.1,-1.87072,0.274847,0.939108,0.206243
0.614279,-0.1,-2.21071,0.355249,0.919709,0.167132
0.272812,-0.1,-3.16481,0.0185376,0.932672,-0.360248
-0.141868,-0.1,-1.66323,-0.0568205,0.912722,0.40461
0.666506,-0.1,-0.785358,0.249046,0.775894,0.579624
-0.335892,-0.1,-1.40001,-0.129505,0.889631,0.437934
1.54301,-0.1,-2.45053,0.701374,0.552452,-0.450412
1.36188,-0.1,1.12369,0.381293,0.458492,0.802746
0.178621,-0.1,-1.1439,0.101841,0.860865,0.498537
0.32007,-0.1,-2.5535,0.00960377,0.992112,-0.124988
0.904699,-0.1,-0.653032,0.39661,0.673712,0.623548
1.0425,-0.1,-0.872797,0.414254,0.664461,0.622001
0.647189,-0.1,-2.11217,0.316043,0.933876,0.16731
-0.836231,-0.1,-5.71729,-0.0108608,0.610245,-0.792138
-0.197279,-0.1,0.430474,-0.056848,0.611415,0.789265
-1.42566,-0.1,-1.81049,-0.56763,0.806604,0.164883
-3.72764,-0.1,-0.294212,-0.811881,0.392488,0.432206
0.46025,0.1,-0.804892,0.59997,-0.599599,-0.529638
-0.515604,-0.1,-1.95248,-0.271309,0.955928,0.112218
0.186059,-0.1,-2.41625,0.116427,0.985147,0.126212
1.18565,-0.1,-2.62951,0.525208,0.84821,-0.0685306
0.370155,-0.1,0.434341,0.211804,0.568016,0.795297
-0.263997,-0.1,2.19338,-0.0973395,0.344061,0.933888
0.247835,-0.1,-2.78477,0.100193,0.992722,-0.0668203
-3.84937,-0.1,2.61578,-0.57641,0.286495,0.765292
-0.544454,-0.1,-2.24339,-0.241877,0.970229,0.0123135
-0.0305851,0.1,35.7575,-0.0495337,-0.0720641,0.996169
-0.401064,-0.1,-2.2923,-0.245268,0.968287,0.0475846
2.87027,-0.1,-5.36426,0.581238,0.473898,-0.661501
2.30666,-0.1,-2.32458,0.814183,0.576421,-0.0696015
5.64509,0.1,-3.59563,0.0303351,-0.964383,-0.262764
-0.902297,-0.1,-2.31699,-0.448431,0.893245,0.0319862
4.65246,-0.1,-0.709964,0.875023,0.345988,0.338567
-0.135627,-0.1,0.892262,0.0836347,0.548563,0.831916
0.453653,-0.1,-2.3871,0.220804,0.975148,-0.018195
0.0318397,-0.1,-1.77729,0.0434437,0.9658,0.255623
0.862711,-0.1,-2.83819,0.499963,0.787313,-0.360797
0.734758,-0.1,-2.12252,0.29512,0.951572,0.0861092
-0.107669,-0.1,-1.02457,-0.0395979,0.851651,0.522612
-0.263304,-0.1,-2.12555,-0.319863,0.894502,-0.312335
-0.294775,-0.1,-0.111463,-0.175691,0.65137,0.73814
0.338974,-0.1,-2.77135,0.315367,0.928786,-0.194679
0.150423,-0.1,-2.51269,0.0128586,0.994973,-0.0993171
-0.479102,-0.1,-1.59241,-0.253733,0.878988,0.403732
-4.70644,0.1,-9.46497,-0.0784511,-0.376974,-0.922895
0.575926,-0.1,-3.04696,0.292806,0.908379,-0.298518
-0.393397,-0.1,-1.7633,-0.244839,0.951617,0.185682
0.424313,-0.1,-0.310578,0.152077,0.679856,0.717404
-0.495745,-0.1,-2.40041,-0.286854,0.9579,-0.011945
-0.310657,-0.1,-1.17145,-0.133235,0.84405,0.51945
-21.2587,0.1,11.5446,-0.705222,-0.149987,0.69294
-21.2884,0.1,11.5656,-0.967908,-0.105765,0.227966
-39.1548,0.1,19.2934,0.262391,-0.943247,-0.203561
-0.708041,-0.1,-1.16433,-0.419234,0.812122,0.405833
-1.35954,-0.1,-1.06302,-0.44479,0.727333,0.522636
-0.461176,-0.1,-1.72505,-0.151311,0.952478,0.264367
0.62446,-0.1,-0.72122,0.195349,0.731592,0.653155
-0.687515,-0.1,-1.04228,-0.320751,0.815679,0.481443
4.86198,0.1,-6.61044,0.326551,-0.756635,-0.566452
-0.153163,-0.1,-4.08867,-0.0586772,0.726865,-0.684269
5.6374,-0.1,-12.1309,0.39562,0.399819,-0.826819
0.234867,-0.1,-0.186955,-0.0142572,0.727652,0.685798
0.489126,-0.1,-3.56729,0.138131,0.84163,-0.52209
-0.118269,-0.1,-3.09425,0.00940545,0.950802,-0.309656
-1.52366,-0.1,-0.0515833,-0.489319,0.552207,0.675007
-1.87338,0.1,-0.0451496,-0.964376,-0.0148078,0.264121
-0.632742,-0.1,-2.15149,-0.319754,0.943505,0.0869245
0.225875,-0.1,-2.0114,0.0928596,0.981952,0.164764
6.7352,0.1,-30.5835,0.181673,-0.18922,-0.964982
-1.30509,-0.1,2.84252,-0.199411,0.304764,0.931319
-4.20886,-0.1,11.1266,0.275227,0.544281,0.79247
-2.22368,-0.1,13.4184,0.192765,0.677151,0.710146
0.269222,-0.1,-2.52487,0.0474973,0.998664,-0.0203436
-1.06138,-0.1,-2.70372,-0.493339,0.821086,-0.287114
1.69737,-0.1,-3.25756,0.676327,0.674543,-0.295927
-0.960769,-0.1,-1.55155,-0.354417,0.875543,0.328348
-6.16245,0.1,1.53965,-0.880359,-0.44238,0.17108
0.680909,-0.1,-0.199049,0.0950223,0.707323,0.700475
0.788409,-0.1,-2.50447,0.405278,0.911158,-0.0744316
0.916825,-0.1,0.196484,0.152027,0.555781,0.81731
-0.955307,-0.1,0.661917,-0.241975,0.465738,0.851197
-2.57716,-0.1,7.94309,-0.295441,0.336837,0.894011
1.34662,-0.1,-0.855055,0.536347,0.742055,0.402102
-0.521748,-0.1,-2.19395,-0.22463,0.970766,0.0845803
-3.5828,-0.1,-0.724545,-0.888518,0.390568,0.240817
0.924531,-0.1,-1.48702,0.312803,0.915101,0.254447
-0.478085,-0.1,-1.72698,-0.0958728,0.994309,-0.0464528
0.271523,-0.1,0.357331,0.0613296,0.547336,0.834663
0.384127,-0.1,-1.71175,0.232056,0.948273,0.216629
-0.149695,-0.1,-2.18034,-0.0528916,0.97406,0.22002
3.00997,-0.1,-0.27765,0.703992,0.503181,0.501203
-0.17152,-0.1,-2.13153,-0.0749218,0.988213,0.133501
2.93045,-0.1,-0.657871,0.753137,0.485236,0.444219
0.0992164,-0.1,-0.661477,0.0542669,0.748189,0.661262
0.988855,-0.1,-2.02172,0.418263,0.881837,0.217759
-1.57488,-0.1,-1.205,-0.560668,0.702226,0.438781
0.42251,-0.1,-0.679056,0.19183,0.788078,0.584922
-0.0581634,-0.1,-1.78403,0.0688691,0.965807,0.249949
-5.04045,0.1,-8.61871,-0.730011,-0.294358,-0.616796
-0.703121,-0.1,-1.24883,-0.278257,0.88304,0.377906
7.43635,0.1,1.11282,0.903136,-0.362283,0.230425
-0.196973,-0.1,-1.43732,-0.0453415,0.898804,0.436
1.73976,-0.1,-2.04849,0.60674,0.793337,0.0498358
0.433927,-0.1,-1.19924,0.173285,0.885512,0.431093
-1.9484,-0.1,-2.26384,-0.721311,0.691814,-0.0332237
3.25004,-0.1,3.11916,0.497751,0.251888,0.829937
0.667903,-0.1,-3.33502,0.314436,0.833517,-0.454291
0.63491,-0.1,-0.125394,0.265108,0.694208,0.669173
-1.97152,-0.1,1.76108,-0.358116,0.48924,0.795234
0.0599274,-0.1,-1.16314,0.12063,0.798333,0.590011
-0.314939,-0.1,-1.59376,-0.321089,0.909168,-0.265169
-0.0464075,-0.1,-2.13941,-0.0276422,0.995347,0.0923095
0.938089,-0.1,-1.98239,0.39974,0.874269,0.275428
5.5424,0.1,3.63812,0.790451,-0.592639,0.15481
-0.505578,-0.1,-2.15765,-0.197442,0.979442,0.0413642
1.69913,-0.1,-0.398798,0.570466,0.590097,0.571273
-1.61631,-0.1,-1.609,-0.603418,0.731156,0.318272
-0.83676,-0.1,-1.27788,-0.255566,0.851973,0.456977
-1.32358,-0.1,1.06402,-0.379086,0.502614,0.776964
-19.437,-0.1,19.2796,-0.686159,0.0538057,0.725459
-25.5454,-0.1,25.1246,-0.684828,0.415466,0.598664
1.11068,-0.1,-0.814012,0.539802,0.68106,0.494743
0.869504,-0.1,-1.5742,0.308077,0.911066,0.273946
0.777038,-0.1,-2.30695,0.280587,0.958127,-0.0571345
-8.08573,0.1,-1.48738,-0.837482,-0.510523,-0.194911
0.0475467,-0.1,-1.42514,-0.0600892,0.880225,0.470736
0.493018,-0.1,0.281544,0.231349,0.652281,0.721808
0.607277,-0.1,-0.860151,0.258053,0.809743,0.526997
-0.46821,-0.1,-1.03053,-0.19889,0.795279,0.57269
1.81981,-0.1,-0.0191267,0.435164,0.572417,0.694961
0.782047,-0.1,-2.41215,0.359016,0.932752,-0.0328715
1.36578,-0.1,-0.682947,0.40001,0.768481,0.499428
0.316381,-0.1,-1.79645,0.0892987,0.938849,0.332548
1.28895,-0.1,-0.642595,0.366324,0.699595,0.613493
0.149119,-0.1,-2.07002,0.154446,0.955787,-0.250235
-1.88002,-0.1,-1.31188,-0.68745,0.677129,0.262503
2.36418,-0.1,-0.391139,0.627607,0.509228,0.588894
0.176753,-0.1,-2.04982,0.132912,0.986522,0.0954441
6.01873,0.1,0.142792,0.602744,-0.597755,0.528572
0.395108,-0.1,-2.00848,0.165151,0.983358,0.0757145
0.769491,-0.1,-1.98462,0.389469,0.902481,0.183959
-2.33104,0.1,-5.04977,-0.377312,-0.895871,-0.234629
-0.324019,-0.1,-0.731896,-0.143518,0.710744,0.688655
0.0354246,-0.1,0.632794,0.00193901,0.55142,0.834226
1.36274,-0.1,-4.20816,-0.172398,0.924968,-0.338693
-1.55899,-0.1,6.49642,-0.212093,0.182251,0.960105
2.97805,-0.1,18.3823,0.163725,0.355318,0.920295
1.21278,0.1,8.65022,0.122324,-0.673054,-0.729407
2.4477,-0.1,-1.28041,0.739168,0.60402,0.297979
-0.0858761,-0.1,-1.32625,-0.129365,0.919804,0.370438
0.961248,-0.1,-0.663707,0.358674,0.78911,0.498657
1.06695,-0.1,-1.41565,0.387853,0.833167,0.394211
-0.0150532,-0.1,0.922102,-0.121799,0.595577,0.794011
0.759647,-0.1,-1.54871,0.324244,0.895612,0.304539
-0.288387,-0.1,-1.18039,-0.160145,0.879275,0.448586
0.701079,-0.1,-1.1313,0.313989,0.801509,0.508915
0.510097,-0.1,-0.76933,0.238592,0.825286,0.511837
0.774081,-0.1,0.476646,0.234469,0.541871,0.807093
0.796924,-0.1,-1.28299,0.322181,0.854685,0.407079
-1.09938,-0.1,-1.11365,-0.504121,0.712354,0.488276
0.865801,-0.1,-0.978422,0.192646,0.96717,-0.165742
-3.3267,-0.1,-2.55104,-0.874963,0.474701,-0.0953897
1.11208,-0.1,-2.21918,0.551319,0.825664,0.11969
0.0992616,-0.1,-1.41306,0.0268852,0.876246,0.481113
-1.20206,-0.1,-2.68821,-0.525965,0.84463,-0.0998034
-1.91814,-0.1,-1.68864,-0.595801,0.77851,0.197341
0.301922,-0.1,-2.60803,0.25105,0.94312,-0.217939
-0.258405,-0.1,-1.19845,0.00647862,0.866285,0.499508
0.641519,-0.1,-0.0619515,0.203021,0.715354,0.668619
3.35195,-0.1,-0.584831,0.862078,0.438452,0.254128
-2.65585,-0.1,-2.00932,-0.585088,0.805203,-0.096544
-0.297557,-0.1,-0.326847,-0.0841028,0.725473,0.683093
-2.81954,-0.1,-1.19698,-0.70308,0.616447,0.354502
-1.1247,-0.1,-2.73285,-0.442767,0.88438,-0.147747
1.04009,-0.1,-1.07504,0.2939,0.834743,0.465647
-0.0927014,-0.1,-3.41466,-0.128205,0.914338,-0.384123
-2.08527,0.1,-4.36095,-0.284153,-0.958773,0.00334615
0.486501,-0.1,-2.45024,0.184644,0.982629,-0.018642
-1.50168,0.1,-4.61752,-0.26625,-0.577223,-0.771962
-0.43158,-0.1,-2.7449,-0.181355,0.966312,-0.182625
-3.02299,-0.1,-0.28262,-0.700899,0.521691,0.486394
1.67091,0.1,2.02981,0.619166,-0.740668,-0.260853
6.4399,0.1,8.47753,0.467679,-0.45527,0.757631
0.0843673,-0.1,-2.31837,-0.0168496,0.999827,-0.00783343
-0.357681,-0.1,-0.141556,-0.0981137,0.642353,0.760103
0.0720256,-0.1,-2.42078,-0.023523,0.993978,-0.107022
0.0827631,-0.1,0.275003,-0.00921626,0.577711,0.816189
0.98871,-0.1,-2.12434,0.484845,0.87417,0.0274283
5.52509,-0.1,6.18368,0.574125,0.153812,0.804191
0.0766431,-0.1,-0.149841,0.0397966,0.688984,0.723684
1.04547,-0.1,-2.63045,0.426875,0.88978,-0.161461
2.24757,0.1,-1.77935,0.634216,-0.772507,0.0316547
-2.25291,0.1,3.5555,-0.390046,-0.372844,0.841933
-0.898331,-0.1,1.88393,-0.426713,0.485111,0.763271
0.518199,-0.1,-2.74677,0.259455,0.924447,-0.27943
-0.106772,-0.1,-2.76281,-0.0853494,0.988335,-0.126129
0.50061,-0.1,-1.36895,0.156626,0.915828,0.369768
-1.82924,0.1,-4.36548,-0.464783,-0.631098,-0.621041
-0.00218868,-0.1,-1.17773,-0.017066,0.837162,0.546689
0.593845,-0.1,-2.35185,0.189972,0.981569,0.0208191
-0.0113262,-0.1,-1.17197,-0.0607209,0.827507,0.558162
0.51257,-0.1,-1.54737,0.186941,0.913077,0.362413
-0.084392,0.1,-2.03551,-0.306862,-0.946444,0.1004
3.19532,0.1,-0.0214518,0.429339,-0.637459,0.639777
-1.66981,-0.1,-1.93379,-0.582912,0.756824,0.295689
-0.146225,-0.1,-0.977852,-0.392873,0.796683,0.45929
-0.172121,-0.1,-2.1664,-0.0465706,0.998492,0.0290758
-2.11073,-0.1,-2.10724,-0.639877,0.768466,0.00429103
-0.869568,-0.1,1.7114,-0.291924,0.410523,0.863858
-0.0488091,-0.1,-1.92502,-0.12352,0.96955,0.211459
2.18101,0.1,0.716224,0.118273,-0.649543,0.751069
-0.52925,-0.1,-1.47156,-0.343272,0.879289,0.330174
0.416475,-0.1,-2.36225,0.271036,0.953918,-0.128762
0.569237,-0.1,0.0385447,0.0605171,0.64993,0.75758
-0.0280922,-0.1,-0.445103,0.0957297,0.75255,0.65154
-1.38572,-0.1,5.24416,0.819727,0.57275,0.00215826
-0.0795737,-0.1,-3.31906,-0.0555425,0.93558,-0.34872
1.3021,-0.1,-1.10641,0.55275,0.771171,0.315853
-1.73423,-0.1,-2.31485,-0.576423,0.81328,0.0794505
-1.83788,-0.1,-0.079794,-0.456034,0.582094,0.673201
5.76341,-0.1,-0.793891,0.939578,0.287281,0.186181
-2.33793,-0.1,0.268625,-0.527082,0.487501,0.696081
0.214858,-0.1,-1.27321,0.159513,0.883129,0.441178
-0.12245,-0.1,-0.220115,-0.0113492,0.668438,0.743682
1.49185,-0.1,0.361645,0.239958,0.589085,0.771621
-0.0413341,-0.1,-1.49233,0.0209395,0.981424,0.190703
0.672712,-0.1,-0.619574,0.227399,0.669022,0.707601
1.13926,0.1,0.565192,0.580449,-0.789949,0.197635
2.52544,0.1,3.41673,-0.00717093,-0.9043,0.426838
-0.569525,-0.1,-1.8279,-0.201998,0.958691,0.200271
0.640621,-0.1,-1.33856,0.310277,0.891279,0.33068
-0.26525,-0.1,-1.49347,-0.148277,0.889089,0.433053
-0.464874,-0.1,-2.40828,-0.300373,0.952902,0.0418721
2.02465,0.1,0.214593,0.494738,-0.742203,0.452072
-0.619081,-0.1,-1.96036,-0.291193,0.936007,0.19773
1.10206,-0.1,-1.0881,0.362125,0.762304,0.53643
-0.070188,-0.1,-2.25073,-0.138971,0.988017,0.0671512
2.34549,0.1,-1.52024,-0.515666,-0.844837,0.142612
-0.191677,-0.1,-0.836894,0.170735,0.77675,0.606225
-1.50515,-0.1,-0.295405,-0.56965,0.590728,0.571436
2.04774,-0.1,-0.215429,0.611366,0.500895,0.612647
-0.4489,-0.1,-1.54527,-0.243093,0.863891,0.441133
5.74552,-0.1,1.72184,0.849597,0.231622,0.473853
0.0716334,-0.1,-2.20303,0.0193874,0.999449,0.026954
2.29283,-0.1,-0.868593,0.681832,0.562907,0.467163
4.01527,-0.1,-3.26372,0.884188,0.409431,-0.224897
1.32808,-0.1,-2.48314,0.561815,0.825503,-0.0539337
-1.03364,-0.1,-0.50847,-0.317268,0.646597,0.693724
1.24158,-0.1,-0.394247,0.434019,0.759393,0.484716
0.466796,-0.1,-2.01645,0.266872,0.963073,0.0356471
0.253025,-0.1,-1.55221,0.121268,0.84196,0.525736
-0.855842,-0.1,-2.19799,-0.432248,0.900726,0.0430688
-1.07316,0.1,-1.2933,0.115844,-0.987095,-0.110564
-0.752881,-0.1,-2.12834,-0.267655,0.949168,0.165652
-0.691751,-0.1,-1.44226,-0.367831,0.836108,0.406969
-0.162544,-0.1,-1.71817,-0.0932909,0.960103,0.263628
0.70625,-0.1,-0.230928,0.269066,0.671986,0.689955
-2.02924,-0.1,-0.830853,-0.630673,0.618011,0.469377
-0.858081,-0.1,-1.59603,-0.403057,0.884891,0.233479
0.459652,-0.1,-1.45055,0.226565,0.920854,0.317327
0.584297,-0.1,-0.94746,0.219886,0.737352,0.638719
0.0230281,-0.1,-1.43393,-0.0242154,0.948109,0.317023
-1.28466,0.1,-0.898834,-0.0399506,-0.878025,0.476945
0.751542,-0.1,-2.32826,0.381505,0.918234,0.106302
0.0533213,-0.1,-3.03261,-0.0106424,0.919128,-0.393815
-0.283498,-0.1,-1.92948,-0.179231,0.967979,0.175764
0.0201078,-0.1,-1.36178,-0.0278111,0.873266,0.48645
-0.77787,-0.1,-1.07435,-0.27023,0.797909,0.538811
0.994345,-0.1,-1.3692,0.476192,0.806804,0.349727
-0.291889,-0.1,-1.50614,-0.0866319,0.89989,0.427427
1.12321,-0.1,-0.569529,0.358609,0.676288,0.643455
0.586571,-0.1,-1.14075,0.265211,0.870232,0.415162
-0.134502,-0.1,-3.16786,-0.0277375,0.968025,-0.249314
-0.50171,-0.1,-3.21613,-0.203339,0.918827,-0.338245
-8.11829,-0.1,5.21762,-0.738747,0.139795,0.659325
-0.0261128,-0.1,2.06888,-0.0339466,0.360738,0.932049
-2.56434,-0.1,1.64252,-0.469974,0.866928,0.166014
0.171023,-0.1,-1.15267,0.186901,0.92379,0.334185
0.06898,0.1,-2.25524,-0.14471,-0.837395,-0.527094
-1.33048,-0.1,-0.87387,-0.456913,0.733225,0.503598
-0.742295,-0.1,-2.15022,-0.196848,0.978765,0.0571763
-1.00873,-0.1,-2.75321,-0.411254,0.881642,-0.231467
-0.556073,-0.1,-1.0472,0.038573,0.956787,0.28822
-0.568239,-0.1,-1.46468,-0.245664,0.867659,0.432224
1.12449,-0.1,-1.59277,0.461669,0.859419,0.219685
-0.278671,-0.1,-1.09228,-0.110928,0.872793,0.475318
0.10635,-0.1,2.97504,0.108973,0.315112,0.942777
2.00764,-0.1,-2.26941,0.649609,0.756201,-0.0785348
0.0469224,-0.1,-0.939242,-0.0986513,0.806241,0.583304
-0.633341,-0.1,-1.66989,-0.226388,0.889652,0.396571
2.34419,-0.1,-1.41536,0.713108,0.625369,0.316844
-3.65132,-0.1,0.0328983,-0.820429,0.460667,0.338649
1.56595,-0.1,-1.19885,0.476653,0.852825,0.213288
0.237477,-0.1,-3.56882,0.182652,0.812023,-0.554307
-1.16324,-0.1,1.12299,-0.257554,0.437277,0.861658
0.55124,-0.1,-0.582087,0.308048,0.780975,0.543308
2.41337,0.1,-16.5158,-0.135955,-0.251175,-0.958346
1.31121,-0.1,-2.54705,0.421116,0.899377,-0.117397
1.08705,-0.1,-1.67325,0.516669,0.802126,0.299412
-0.544289,-0.1,-0.568153,-0.270298,0.811305,0.518385
1.10719,-0.1,-1.93106,0.478875,0.863412,0.158741
-0.0130499,-0.1,-2.05351,-0.115134,0.981327,0.154081
-1.24949,-0.1,-1.59317,-0.528996,0.788692,0.313254
-0.0614164,-0.1,-3.38867,-0.136825,0.894931,-0.424708
2.65411,-0.1,-1.81987,0.672218,0.731134,0.116477
5.59382,-0.1,8.70398,0.475231,0.128577,0.870415
0.349129,-0.1,-1.71474,0.324806,0.933302,0.153131
1.10079,-0.1,-1.83609,0.40511,0.888441,0.215776
2.15343,0.1,-4.76861,0.0556573,-0.652581,-0.755672
-0.433241,-0.1,-1.24391,-0.0542543,0.913188,0.403911
-0.791106,-0.1,-0.59384,-0.23267,0.751704,0.617095
5.94484,-0.1,4.11743,0.664792,0.184447,0.7239
0.0580146,-0.1,-0.699037,-0.0579959,0.73232,0.678487
-2.702,0.1,2.96284,-0.551067,-0.606078,0.573581
0.696663,-0.1,-2.53991,0.365458,0.926323,-0.0914614
-1.72678,-0.1,-0.262519,-0.549167,0.605119,0.576408
-1.11099,-0.1,-0.921753,-0.368031,0.730457,0.575313
0.719896,-0.1,-1.43677,0.395364,0.837717,0.37672
0.0512111,-0.1,-1.94064,0.0701034,0.959563,0.272625
0.766474,-0.1,0.228783,0.178065,0.558497,0.810169
-1.19184,-0.1,-1.27532,-0.457579,0.806051,0.375372
-0.209014,-0.1,-1.41279,0.00388205,0.926142,0.377156
0.866173,-0.1,-0.454827,0.24638,0.720225,0.648516
-0.187886,-0.1,-2.89766,0.00644068,0.966883,-0.255138
0.802989,-0.1,-1.72046,0.335593,0.933907,0.123271
0.281742,-0.1,-1.48729,0.126901,0.92382,0.361182
-1.26572,0.1,-0.306523,-0.777085,-0.627788,0.044953
-7.9781,0.1,-2.81669,-0.45224,-0.812718,0.36738
0.190676,-0.1,-1.10145,-0.0526916,0.905393,0.421292
-0.552768,-0.1,-2.11313,-0.253812,0.966099,0.0472402
-0.0809348,-0.1,-3.41299,-0.0874691,0.871698,-0.482174
-0.613205,-0.1,-2.35064,-0.312726,0.949604,0.0213353
-0.506586,-0.1,-0.31093,-0.144787,0.805715,0.574335
-1.39299,-0.1,-2.11165,-0.515825,0.854309,0.0638826
-1.26084,-0.1,-0.675078,-0.476164,0.699014,0.533524
-1.53414,-0.1,0.575778,-0.388024,0.515923,0.763715
0.154203,-0.1,-0.904981,0.122655,0.735811,0.665986
-0.14485,-0.1,-0.822435,-0.239747,0.838831,0.488758
0.234433,-0.1,-2.84531,0.106304,0.922206,-0.3718
1.58699,-0.1,-0.609142,0.574809,0.69159,0.437377
3.40819,-0.1,0.8251,0.719281,0.356656,0.596181
-1.27164,-0.1,-0.301116,-0.535552,0.579549,0.614252
0.911547,-0.1,-0.394962,0.29993,0.655941,0.692664
6.81782,-0.1,4.40671,0.842621,0.391688,0.369555
2.69416,-0.1,-2.47218,0.79202,0.606065,-0.0734167
-0.599717,-0.1,-2.25719,-0.205801,0.978225,-0.02687
0.461522,-0.1,-1.83658,0.143068,0.962106,0.232128
-1.00959,-0.1,-2.73827,-0.372705,0.911946,-0.171597
0.923033,-0.1,-0.507604,0.404614,0.671382,0.620914
0.345496,-0.1,-1.06791,0.0553923,0.850318,0.523346
-4.21314,-0.1,0.136655,-0.82017,0.319584,0.474539
1.38093,-0.1,-0.129728,0.475058,0.594689,0.648587
1.54475,-0.1,2.57293,0.142566,0.335393,0.931228
-2.83068,-0.1,-2.88434,-0.781366,0.611498,-0.124649
-0.983807,-0.1,-1.62962,-0.458559,0.84924,0.261753
-0.540643,-0.1,-1.03209,-0.223106,0.760397,0.609935
-3.41341,0.1,2.20547,-0.564006,-0.704314,0.431091
-1.32698,-0.1,-1.5425,-0.565574,0.742783,0.358329
0.944974,-0.1,-0.486587,0.483271,0.6685,0.565294
26.4345,-0.1,0.541104,0.995759,0.0850764,0.0350045
0.122426,-0.1,-2.2204,0.03062,0.996233,0.0811354
-0.704845,-0.1,-1.34558,-0.343612,0.850344,0.398554
3.3278,-0.1,-1.31735,0.881758,0.452371,0.133656
-0.0838556,-0.1,-1.56747,-0.101864,0.891077,0.442273
0.971071,-0.1,-0.295674,0.342349,0.776975,0.528307
0.180369,-0.1,-0.221891,-0.0402956,0.681967,0.730272
0.855643,-0.1,-1.48513,0.30367,0.825702,0.475395
0.00426249,-0.1,-1.89301,0.0458479,0.975036,0.217263
0.581326,-0.1,-1.29964,0.229637,0.864708,0.446707
1.98714,-0.1,-1.19049,0.608886,0.781266,0.137413
0.143456,-0.1,0.214684,0.0365651,0.589938,0.80662
0.723896,-0.1,-1.39222,0.249584,0.918424,0.306928
3.83949,0.1,-0.274499,0.128472,-0.973113,0.19117
-1.41766,-0.1,-0.660479,-0.485579,0.660502,0.572669
-0.0266159,-0.1,-2.36517,-0.0336219,0.993701,-0.106898
-1.378,-0.1,-1.88504,-0.560324,0.789649,0.249982
-0.525127,-0.1,-1.27378,-0.278473,0.835944,0.472916
0.402202,-0.1,-1.85411,0.290222,0.941674,0.170354
-0.333224,-0.1,-1.64333,-0.172421,0.961944,0.211978
-0.441437,-0.1,-0.819915,-0.0723244,0.904798,0.419654
-0.95206,-0.1,-1.52446,-0.349237,0.857193,0.37849
0.696885,-0.1,-2.0943,0.316512,0.932166,0.175744
-1.42461,-0.1,0.238265,-0.515681,0.529232,0.673785
0.250613,-0.1,-1.75676,0.189217,0.958111,0.214988
0.00407631,-0.1,-1.91054,-0.0480644,0.982575,0.179546
2.25329,-0.1,-1.26618,0.728971,0.628009,0.272408
1.83072,0.1,0.803874,0.101588,-0.960435,0.259317
-2.15994,-0.1,-0.826182,-0.575714,0.585078,0.571171
-0.352826,-0.1,-3.25505,-0.333411,0.829344,-0.448359
-0.488145,-0.1,-3.29748,-0.302955,0.860037,-0.410554
-0.361345,-0.1,-3.11261,-0.274784,0.885685,-0.374239
0.646682,-0.1,-3.0584,0.293125,0.895661,-0.334468
1.99621,0.1,-3.88361,0.321957,-0.91167,-0.255347
-0.614659,-0.1,0.0225576,-0.193754,0.658082,0.72759
1.49296,-0.1,-1.96312,0.598288,0.76819,0.227893
-6.51054,-0.1,0.971977,-0.888832,0.270339,0.369992
-0.59815,-0.1,-1.74335,-0.305008,0.910364,0.279657
0.981887,-0.1,-3.63141,0.449817,0.698918,-0.556038
0.539869,-0.1,-1.84248,0.241473,0.909103,0.339445
1.06471,-0.1,-1.17975,0.417182,0.793925,0.442314
-0.221592,-0.1,-0.389355,0.000823771,0.669018,0.743246
8.09908,-0.1,1.87171,0.87422,0.182858,0.44978
0.25613,-0.1,-2.12295,0.348317,0.936541,0.0395857
-0.826881,-0.1,-0.81991,-0.466874,0.68472,0.559632
-0.00476734,-0.1,-2.32414,-0.114802,0.986947,0.11294
-0.412688,-0.1,-1.82885,-0.260127,0.930196,0.258978
-1.6264,-0.1,0.937095,-0.449223,0.454666,0.769076
-3.85805,-0.1,-1.81876,-0.864467,0.477981,0.155661
1.58558,-0.1,-2.28281,0.539835,0.840834,-0.0397147
0.0775185,-0.1,-1.97322,-0.0192065,0.995225,0.0957015
-0.471922,-0.1,-1.01129,-0.131254,0.834809,0.534665
0.80001,-0.1,-1.37231,0.314225,0.857374,0.407642
-0.0686763,-0.1,-2.67094,-0.0251014,0.996673,-0.0775372
1.85035,-0.1,-1.07329,0.641553,0.618736,0.453405
-1.5698,-0.1,-1.78597,-0.673318,0.707165,0.215778
-7.04725,0.1,-4.56592,-0.787762,-0.57244,-0.227473
-1.95124,-0.1,-0.746619,-0.560364,0.583267,0.588041
-0.637494,-0.1,-1.154,-0.174803,0.85021,0.496575
-0.714924,-0.1,-1.1416,-0.231046,0.842847,0.486031
-0.685464,-0.1,0.818013,-0.219188,0.474317,0.852631
1.68894,-0.1,-0.354589,0.465687,0.57604,0.671799
2.79542,-0.1,-5.15391,0.681366,0.426323,-0.59497
-0.26552,-0.1,-1.80591,-0.279944,0.935614,0.215078
3.67584,-0.1,0.336855,0.749873,0.335793,0.570029
-1.20572,-0.1,-1.58248,-0.534393,0.819411,0.207339
12.8911,-0.1,9.14658,0.771935,0.136625,0.620846
1.4239,-0.1,-1.59816,0.529546,0.747226,0.401539
-3.89753,-0.1,-3.21023,-0.845933,0.484817,-0.222148
0.543409,-0.1,-1.36831,0.332382,0.839152,0.430518
-0.572718,0.1,-1.82945,0.00820249,-0.8771,-0.480237
2.65874,-0.1,-1.22569,0.832961,0.465711,0.298811
0.685781,-0.1,-2.72682,0.325616,0.932242,-0.157792
1.21642,-0.1,1.88389,0.197281,0.373957,0.906221
-1.07221,-0.1,0.175627,-0.350886,0.576506,0.737915
0.394506,-0.1,-2.67343,0.21791,0.97589,-0.0124392
0.205126,-0.1,-1.39136,0.0450622,0.872965,0.485697
-2.62558,-0.1,2.73238,-0.459256,0.308619,0.832969
0.0865401,-0.1,0.312093,0.112608,0.613386,0.781715
2.26008,-0.1,-2.01226,0.779635,0.621367,-0.0779211
0.315903,-0.1,-1.98799,0.178503,0.962253,0.205442
0.941285,-0.1,-1.52003,0.345242,0.883763,0.315865
0.685831,-0.1,-2.05675,0.463722,0.885552,0.0275526
5.51797,0.1,-0.0432712,0.370595,-0.797866,0.475467
-0.112291,-0.1,-1.70901,-0.0241978,0.953186,0.301416
3.22563,-0.1,-2.01136,0.814888,0.569866,-0.105879
36.68,-0.1,-0.0783713,0.997968,0.0437841,0.0462954
-1.51858,-0.1,-1.67057,-0.373501,0.874026,0.310767
-0.931875,-0.1,-1.83016,-0.360309,0.916725,0.172604
-1.07408,-0.1,-1.89083,-0.486407,0.857171,0.169313
-0.161662,-0.1,-1.20692,-0.302137,0.773814,0.556709
-2.09343,-0.1,-3.30333,-0.709362,0.638898,-0.297682
-0.0912493,-0.1,-1.71949,-0.109091,0.91693,0.383847
-1.00964,-0.1,-2.48073,-0.476403,0.876428,-0.0701042
-1.54665,-0.1,-0.688192,-0.481514,0.641681,0.596984
-0.73698,-0.1,-1.4472,-0.288006,0.854762,0.431781
0.367989,-0.1,-2.44904,0.154103,0.985827,-0.0663101
0.658242,-0.1,-2.3035,0.254937,0.965816,0.0469695
-1.46286,-0.1,-2.96333,-0.572653,0.740599,-0.351541
0.889491,-0.1,-2.46738,0.399369,0.90492,-0.147053
-1.00442,-0.1,0.515451,-0.287304,0.520056,0.804362
-1.40656,-0.1,-1.64797,-0.561043,0.767305,0.310602
2.08424,-0.1,-2.48101,0.75138,0.65987,-0.000535734
-1.38057,-0.1,-2.06509,-0.186995,0.977736,-0.0952084
0.0964206,-0.1,-2.46282,0.059801,0.997867,0.0261873
2.09646,-0.1,-3.93804,0.400475,0.58997,-0.70111
-0.6814,-0.1,-1.65135,-0.30665,0.907172,0.288104
2.26468,-0.1,-2.32188,0.730373,0.663421,-0.162568
1.45323,-0.1,-1.89071,0.508772,0.841175,0.18324
1.5182,-0.1,-1.89412,0.553649,0.806918,0.205807
-10.3531,-0.1,-0.429196,-0.984341,0.156287,0.081529
-1.43163,-0.1,-2.08656,-0.618635,0.785069,0.0309342
-0.948783,-0.1,-1.63868,-0.493797,0.813665,0.306781
-0.641514,-0.1,-1.21998,-0.299217,0.816743,0.493356
4.05716,0.1,-6.44674,0.465258,-0.867858,-0.174235
2.39308,0.1,-6.31238,-0.75139,-0.653508,-0.0913266
-1.59149,-0.1,-2.35271,-0.612345,0.789845,0.034327
1.6207,-0.1,7.23913,0.171431,0.163462,0.971541
0.28206,-0.1,-0.377025,0.121488,0.686789,0.716632
-2.0961,-0.1,-1.01738,-0.641382,0.64285,0.418776
0.98571,-0.1,-1.14925,0.462745,0.741563,0.485748
0.439133,0.1,-0.229005,0.339183,-0.934567,0.107422
-0.433316,-0.1,-2.40257,-0.128678,0.991686,0.00110852
1.98572,0.1,2.48657,0.400663,-0.8401,0.36565
1.41777,-0.1,-1.0981,0.573025,0.712988,0.404092
3.41014,-0.1,2.62353,0.647274,0.29061,0.704686
1.19306,-0.1,4.20744,0.216395,0.243309,0.945502
1.46055,-0.1,-1.58667,0.549792,0.773395,0.315576
-0.542193,-0.1,-0.987833,-0.301242,0.724443,0.620028
0.293822,-0.1,-1.62147,0.25731,0.876031,0.407874
3.5696,0.1,0.547835,0.675894,-0.587299,0.445249
-2.12239,-0.1,-1.00955,-0.611673,0.659999,0.436184
-0.958224,-0.1,-1.84646,-0.494199,0.845543,0.202052
0.725072,-0.1,-1.82379,0.339753,0.91858,0.201939
-0.374276,-0.1,-1.52314,-0.25098,0.912258,0.323719
0.890921,-0.1,-0.759281,0.351253,0.740094,0.573482
1.07136,-0.1,-1.09831,0.470843,0.729574,0.496013
